         275
  -8.9804942064211115     
   4.7360680000000004        0.0000000000000000       -1.0000000000000000        0.0000000000000000        3.1415926535897931     
   4.3905764999999999      -0.47552850000000002       0.30901685730562767      -0.95105656083166445       -1.2566372055591257     
   4.3905764999999999       0.47552850000000002       0.30901685730562767       0.95105656083166445        1.2566372055591257     
   3.8315595000000000      -0.29389250000000000       0.80901711629055584       0.58778508448999733       0.62831832330270743     
   3.8315595000000000       0.29389250000000000       0.80901711629055584      -0.58778508448999733      -0.62831832330270743     
   5.3905764999999999      -0.47552850000000002      -0.30901685730562767       0.95105656083166445        1.8849554480306674     
   5.3905764999999999       0.47552850000000002      -0.30901685730562767      -0.95105656083166445       -1.8849554480306674     
  -2.0225425000000001      -0.29389250000000000       0.80901711629055573       0.58778508448999744       0.62831832330270754     
  -2.0225425000000001       0.29389250000000000      -0.80901711629055573       0.58778508448999744        2.5132743302870857     
  -1.4635255000000000      -0.47552850000000002       0.30901685730562767      -0.95105656083166445       -1.2566372055591257     
  -1.4635255000000000       0.47552850000000002      -0.30901685730562767      -0.95105656083166445       -1.8849554480306674     
  -2.9270510000000001       -2.4898980000000002       -1.0000000000000000        0.0000000000000000        3.1415926535897931     
  -3.8315595000000000       -2.1960055000000001       0.80901711629055573      -0.58778508448999744      -0.62831832330270754     
  -3.8315595000000000       -2.7837909999999999       0.80901664076230806       0.58778573899820863       0.62831913231946435     
  -3.2725425000000001       -2.9654265000000004       0.30901685730562767      -0.95105656083166445       -1.2566372055591257     
  -3.2725425000000001       -2.0143700000000000       0.30901715119826623       0.95105646534015420        1.2566368965421173     
  -2.9270510000000001        2.4898980000000002        1.0000000000000000       -0.0000000000000000       -0.0000000000000000     
  -3.8315595000000000        2.1960055000000001      -0.80901711629055573      -0.58778508448999744       -2.5132743302870857     
  -3.8315595000000000        2.7837909999999999       0.80901664076230806      -0.58778573899820863      -0.62831913231946435     
  -3.2725425000000001        2.0143700000000000      -0.30901715119826623       0.95105646534015420        1.8849557570476760     
  -3.2725425000000001        2.9654265000000004      -0.30901685730562767      -0.95105656083166445       -1.8849554480306674     
  -2.8315595000000000      -0.29389250000000000       0.80901711629055562      -0.58778508448999756      -0.62831832330270765     
  -2.2725425000000001       -1.0633135000000000       0.30901685730562767      -0.95105656083166445       -1.2566372055591257     
  -2.8315595000000000       0.29389250000000000       0.80901711629055562       0.58778508448999756       0.62831832330270765     
  -2.2725425000000001        1.0633135000000000       0.30901685730562767       0.95105656083166445        1.2566372055591257     
  -2.2725425000000001       -2.0143700000000000      -0.30901715119826623      -0.95105646534015420       -1.8849557570476760     
  -2.2725425000000001       -2.9654265000000004      -0.30901685730562767       0.95105656083166445        1.8849554480306674     
  -2.2725425000000001        2.0143700000000000      -0.30901715119826623       0.95105646534015420        1.8849557570476760     
  -2.2725425000000001        2.9654265000000004      -0.30901685730562767      -0.95105656083166445       -1.8849554480306674     
  -4.7360680000000004        0.0000000000000000       -1.0000000000000000        0.0000000000000000        3.1415926535897931     
  -5.6405764999999999      -0.29389250000000000       0.80901711629055562       0.58778508448999756       0.62831832330270765     
  -5.6405764999999999       0.29389250000000000       0.80901711629055562      -0.58778508448999756      -0.62831832330270765     
  -3.7360680000000004        0.0000000000000000       -1.0000000000000000        0.0000000000000000        3.1415926535897931     
  -4.6405764999999999      -0.29389250000000000       0.80901711629055562       0.58778508448999756       0.62831832330270765     
  -4.6405764999999999       0.29389250000000000       0.80901711629055562      -0.58778508448999756      -0.62831832330270765     
  -4.0815595000000000      -0.47552850000000002       0.30901685730562800      -0.95105656083166423       -1.2566372055591253     
  -4.0815595000000000       0.47552850000000002       0.30901685730562800       0.95105656083166423        1.2566372055591253     
  -4.6405764999999999       -2.1960055000000001       0.80901711629055550       0.58778508448999767       0.62831832330270787     
  -4.0815595000000000       -1.4265850000000000      -0.30901715119826667      -0.95105646534015409       -1.8849557570476765     
  -4.6405764999999999        2.1960055000000001       0.80901711629055550      -0.58778508448999767      -0.62831832330270787     
  -4.0815595000000000        1.4265850000000000      -0.30901715119826667       0.95105646534015409        1.8849557570476765     
  -4.6405764999999999       -2.7837909999999999       0.80901664076230806      -0.58778573899820896      -0.62831913231946468     
  -4.0815595000000000       -3.5532120000000003      -0.30901715119826667       0.95105646534015409        1.8849557570476765     
  -4.6405764999999999        2.7837909999999999       0.80901664076230806       0.58778573899820896       0.62831913231946468     
  -4.0815595000000000        3.5532120000000003      -0.30901715119826667      -0.95105646534015409       -1.8849557570476765     
  -3.0815595000000000      -0.47552850000000002      -0.30901685730562767       0.95105656083166445        1.8849554480306674     
  -3.0815595000000000       0.47552850000000002      -0.30901685730562767      -0.95105656083166445       -1.8849554480306674     
  -4.8905764999999999       -1.0633135000000000      -0.30901685730562767       0.95105656083166445        1.8849554480306674     
  -5.5450850000000003      -0.58778500000000000       -1.0000000000000000       -0.0000000000000000       -3.1415926535897931     
  -4.8905764999999999        1.0633135000000000      -0.30901685730562767      -0.95105656083166445       -1.8849554480306674     
  -5.5450850000000003       0.58778500000000000       -1.0000000000000000       -0.0000000000000000       -3.1415926535897931     
  -4.8905764999999999       -2.9654265000000004      -0.30901685730562767       0.95105656083166445        1.8849554480306674     
  -4.8905764999999999       -2.0143700000000000      -0.30901715119826623      -0.95105646534015420       -1.8849557570476760     
  -4.8905764999999999        2.0143700000000000      -0.30901715119826623       0.95105646534015420        1.8849557570476760     
  -4.8905764999999999        2.9654265000000004      -0.30901685730562767      -0.95105656083166445       -1.8849554480306674     
   5.0450850000000003      -0.95105700000000004       -1.0000000000000000        0.0000000000000000        3.1415926535897931     
   4.1405764999999999       -1.2449495000000002       0.80901711629055584       0.58778508448999733       0.62831832330270743     
   5.0450850000000003       0.95105700000000004       -1.0000000000000000        0.0000000000000000        3.1415926535897931     
   4.1405764999999999        1.2449495000000002       0.80901711629055584      -0.58778508448999733      -0.62831832330270743     
   5.6995935000000006      -0.47552850000000002      -0.30901685730562767      -0.95105656083166445       -1.8849554480306674     
   5.1405764999999999       -1.2449495000000002       0.80901711629055562       0.58778508448999756       0.62831832330270765     
   5.6995935000000006       0.47552850000000002      -0.30901685730562767       0.95105656083166445        1.8849554480306674     
   5.1405764999999999        1.2449495000000002       0.80901711629055562      -0.58778508448999756      -0.62831832330270765     
  -3.5225425000000001       -3.7348474999999999       0.80901711629055584       0.58778508448999744       0.62831832330270743     
  -2.6180340000000002       -3.4409550000000002       -1.0000000000000000        0.0000000000000000        3.1415926535897931     
  -3.5225425000000001       -1.2449495000000002       0.80901711629055562      -0.58778508448999756      -0.62831832330270765     
  -2.6180340000000002       -1.5388420000000000        1.0000000000000000       -0.0000000000000000       -0.0000000000000000     
  -3.5225425000000001        1.2449495000000002       0.80901711629055562       0.58778508448999756       0.62831832330270765     
  -2.6180340000000002        1.5388420000000000        1.0000000000000000       -0.0000000000000000       -0.0000000000000000     
  -3.5225425000000001        3.7348474999999999       0.80901711629055584      -0.58778508448999744      -0.62831832330270743     
  -2.6180340000000002        3.4409550000000002       -1.0000000000000000        0.0000000000000000        3.1415926535897931     
  -3.4270510000000001      -0.95105700000000004       -1.0000000000000000        0.0000000000000000        3.1415926535897931     
  -4.3315595000000000       -1.2449495000000002       0.80901711629055584       0.58778508448999733       0.62831832330270743     
  -3.4270510000000001       0.95105700000000004       -1.0000000000000000        0.0000000000000000        3.1415926535897931     
  -4.3315595000000000        1.2449495000000002       0.80901711629055584      -0.58778508448999733      -0.62831832330270743     
  -4.3315595000000000       -3.7348474999999999       0.80901711629055595      -0.58778508448999722      -0.62831832330270720     
  -3.4270510000000001       -4.0287400000000000       -1.0000000000000000        0.0000000000000000        3.1415926535897931     
  -4.3315595000000000        3.7348474999999999       0.80901711629055595       0.58778508448999722       0.62831832330270720     
  -3.4270510000000001        4.0287400000000000       -1.0000000000000000        0.0000000000000000        3.1415926535897931     
  -2.5225425000000001       -1.2449495000000002      -0.80901711629055562       0.58778508448999756        2.5132743302870857     
  -2.5225425000000001        1.2449495000000002      -0.80901711629055562      -0.58778508448999756       -2.5132743302870857     
  -5.2360680000000004       -1.5388420000000000        1.0000000000000000        0.0000000000000000        0.0000000000000000     
  -5.2360680000000004        1.5388420000000000        1.0000000000000000        0.0000000000000000        0.0000000000000000     
  -5.8905764999999999       -1.0633135000000000       0.30901685730562767      -0.95105656083166445       -1.2566372055591257     
  -5.8905764999999999        1.0633135000000000       0.30901685730562767       0.95105656083166445        1.2566372055591257     
  -1.1545084999999999      -0.47552850000000002       0.30901685730562789       0.95105656083166445        1.2566372055591255     
  -1.1545084999999999       0.47552850000000002      -0.30901685730562789       0.95105656083166445        1.8849554480306676     
 -0.50000000000000000        0.0000000000000000        1.0000000000000000       -0.0000000000000000       -0.0000000000000000     
 -0.90450850000000005       -1.2449495000000002       0.80901711629055573      -0.58778508448999744      -0.62831832330270754     
 -0.90450850000000005       -1.8327344999999999      -0.80901711629055573      -0.58778508448999744       -2.5132743302870857     
 -0.34549150000000001       -2.0143700000000000      -0.30901715119826628       0.95105646534015409        1.8849557570476760     
   0.0000000000000000       -1.5388420000000000        1.0000000000000000       -0.0000000000000000       -0.0000000000000000     
 -0.90450850000000005        1.2449495000000002       0.80901711629055573       0.58778508448999744       0.62831832330270754     
 -0.90450850000000005        1.8327344999999999       0.80901711629055573      -0.58778508448999744      -0.62831832330270754     
 -0.34549150000000001        2.0143700000000000       0.30901715119826628       0.95105646534015409        1.2566368965421173     
   0.0000000000000000        1.5388420000000000       -1.0000000000000000        0.0000000000000000        3.1415926535897931     
 -0.80901700000000010      -0.95105700000000004       -1.0000000000000000        0.0000000000000000        3.1415926535897931     
  -1.7135255000000003       -1.2449495000000002       0.80901711629055573       0.58778508448999744       0.62831832330270754     
 -0.80901700000000010       0.95105700000000004       -1.0000000000000000        0.0000000000000000        3.1415926535897931     
  -1.7135255000000003        1.2449495000000002       0.80901711629055573      -0.58778508448999744      -0.62831832330270754     
  -1.7135255000000003       -1.8327344999999999       0.80901711629055573      -0.58778508448999744      -0.62831832330270754     
  -1.1545084999999999       -2.6021555000000003      -0.30901685730562789       0.95105656083166445        1.8849554480306676     
  -1.7135255000000003        1.8327344999999999       0.80901711629055573       0.58778508448999744       0.62831832330270754     
  -1.1545084999999999        2.6021555000000003      -0.30901685730562789      -0.95105656083166445       -1.8849554480306676     
 -0.15450849999999999      -0.47552850000000002       0.30901685730562778       0.95105656083166445        1.2566372055591257     
   9.5491500000000007E-002  -1.2449495000000002      -0.80901711629055573       0.58778508448999756        2.5132743302870857     
 -0.15450849999999999       0.47552850000000002      -0.30901685730562778       0.95105656083166445        1.8849554480306676     
   9.5491500000000007E-002   1.2449495000000002       0.80901711629055573       0.58778508448999756       0.62831832330270765     
  -1.9635255000000003       -2.0143700000000000      -0.30901715119826639       0.95105646534015409        1.8849557570476760     
  -1.9635255000000003        2.0143700000000000      -0.30901715119826639      -0.95105646534015409       -1.8849557570476760     
  -2.0225425000000001       -5.2736894999999997       0.80901711629055562       0.58778508448999756       0.62831832330270765     
  -1.4635255000000000       -4.5042685000000002      -0.30901685730562778      -0.95105656083166445       -1.8849554480306676     
  -1.4635255000000000       -5.4553250000000002      -0.30901715119826617       0.95105646534015420        1.8849557570476758     
  -2.0225425000000001        5.2736894999999997       0.80901711629055562      -0.58778508448999756      -0.62831832330270765     
  -1.4635255000000000        4.5042685000000002      -0.30901685730562778       0.95105656083166445        1.8849554480306676     
  -1.4635255000000000        5.4553250000000002       0.30901715119826617       0.95105646534015420        1.2566368965421173     
  -2.8315595000000000       -5.2736894999999997      -0.80901711629055550       0.58778508448999767        2.5132743302870852     
  -2.2725425000000001       -5.0920535000000005      -0.30901685730562778      -0.95105656083166445       -1.8849554480306676     
  -2.8315595000000000        5.2736894999999997      -0.80901711629055550      -0.58778508448999767       -2.5132743302870852     
  -2.2725425000000001        5.0920535000000005      -0.30901685730562778       0.95105656083166445        1.8849554480306676     
  -3.0815595000000000       -4.5042685000000002       0.30901685730562778       0.95105656083166445        1.2566372055591257     
  -3.0815595000000000        4.5042685000000002       0.30901685730562778      -0.95105656083166445       -1.2566372055591257     
 -0.59549150000000006       -2.7837909999999999       0.80901664076230817       0.58778573899820896       0.62831913231946457     
  0.30901699999999999       -2.4898980000000002       -1.0000000000000000        0.0000000000000000        3.1415926535897931     
 -0.59549150000000006        2.7837909999999999       0.80901664076230817      -0.58778573899820896      -0.62831913231946457     
  0.30901699999999999        2.4898980000000002        1.0000000000000000       -0.0000000000000000       -0.0000000000000000     
   4.7360680000000004       -3.0776840000000001       -1.0000000000000000        0.0000000000000000        3.1415926535897931     
   4.3905764999999999       -3.5532120000000003      -0.30901715119826628       0.95105646534015420        1.8849557570476760     
   3.8315595000000000       -2.7837909999999999       0.80901664076230806      -0.58778573899820863      -0.62831913231946435     
   4.7360680000000004        3.0776840000000001       -1.0000000000000000        0.0000000000000000        3.1415926535897931     
   4.3905764999999999        3.5532120000000003      -0.30901715119826628      -0.95105646534015420       -1.8849557570476760     
   3.8315595000000000        2.7837909999999999       0.80901664076230806       0.58778573899820863       0.62831913231946435     
   5.3905764999999999       -2.6021555000000003       0.30901685730562767       0.95105656083166445        1.2566372055591257     
   4.8315595000000000       -2.7837909999999999       0.80901664076230839      -0.58778573899820852      -0.62831913231946412     
   5.3905764999999999        2.6021555000000003       0.30901685730562767      -0.95105656083166445       -1.2566372055591257     
   4.8315595000000000        2.7837909999999999       0.80901664076230839       0.58778573899820852       0.62831913231946412     
  -1.7135255000000003       -4.3226325000000001       0.80901711629055562       0.58778508448999756       0.62831832330270765     
  -1.7135255000000003       -3.7348474999999999      -0.80901711629055584       0.58778508448999733        2.5132743302870857     
  -1.1545084999999999       -4.5042685000000002      -0.30901685730562795       0.95105656083166423        1.8849554480306678     
  -1.1545084999999999       -3.5532120000000003      -0.30901715119826645      -0.95105646534015409       -1.8849557570476763     
 -0.80901700000000010       -4.0287400000000000        1.0000000000000000       -0.0000000000000000       -0.0000000000000000     
  -1.7135255000000003        3.7348474999999999      -0.80901711629055584      -0.58778508448999733       -2.5132743302870857     
  -1.7135255000000003        4.3226325000000001       0.80901711629055562      -0.58778508448999756      -0.62831832330270765     
  -1.1545084999999999        3.5532120000000003      -0.30901715119826645       0.95105646534015409        1.8849557570476763     
  -1.1545084999999999        4.5042685000000002      -0.30901685730562795      -0.95105656083166423       -1.8849554480306678     
 -0.80901700000000010        4.0287400000000000        1.0000000000000000       -0.0000000000000000       -0.0000000000000000     
  -2.5225425000000001       -4.3226325000000001       0.80901711629055550      -0.58778508448999767      -0.62831832330270787     
  -2.5225425000000001       -3.7348474999999999       0.80901711629055584       0.58778508448999744       0.62831832330270743     
  -1.9635255000000003       -2.9654265000000004      -0.30901685730562789      -0.95105656083166445       -1.8849554480306676     
  -2.5225425000000001        3.7348474999999999       0.80901711629055584      -0.58778508448999744      -0.62831832330270743     
  -1.9635255000000003        2.9654265000000004      -0.30901685730562789       0.95105656083166445        1.8849554480306676     
  -2.5225425000000001        4.3226325000000001       0.80901711629055550       0.58778508448999767       0.62831832330270787     
   5.1405764999999999       -1.8327344999999999      -0.80901711629055562       0.58778508448999756        2.5132743302870857     
   5.1405764999999999        1.8327344999999999      -0.80901711629055562      -0.58778508448999756       -2.5132743302870857     
  -1.1545084999999999       -5.4553250000000002      -0.30901715119826634      -0.95105646534015409       -1.8849557570476760     
 -0.50000000000000000       -4.9797969999999996       -1.0000000000000000        0.0000000000000000        3.1415926535897931     
 -0.50000000000000000       -3.0776840000000001       -1.0000000000000000        0.0000000000000000        3.1415926535897931     
  -1.4045084999999999       -2.7837909999999999       0.80901664076230806      -0.58778573899820885      -0.62831913231946457     
 -0.50000000000000000        3.0776840000000001       -1.0000000000000000        0.0000000000000000        3.1415926535897931     
  -1.4045084999999999        2.7837909999999999       0.80901664076230806       0.58778573899820885       0.62831913231946457     
  -1.1545084999999999        5.4553250000000002       0.30901715119826634      -0.95105646534015409       -1.2566368965421171     
 -0.50000000000000000        4.9797969999999996        1.0000000000000000       -0.0000000000000000       -0.0000000000000000     
 -0.15450849999999999       -3.5532120000000003       0.30901715119826634       0.95105646534015409        1.2566368965421171     
  0.40450849999999999       -2.7837909999999999       0.80901664076230817       0.58778573899820896       0.62831913231946457     
 -0.15450849999999999        3.5532120000000003       0.30901715119826634      -0.95105646534015409       -1.2566368965421171     
  0.40450849999999999        2.7837909999999999      -0.80901664076230817       0.58778573899820896        2.5132735212703285     
   4.1405764999999999       -3.7348474999999999       0.80901711629055595      -0.58778508448999722      -0.62831832330270720     
   4.1405764999999999       -4.3226325000000001      -0.80901711629055573      -0.58778508448999744       -2.5132743302870857     
   4.1405764999999999        3.7348474999999999       0.80901711629055595       0.58778508448999722       0.62831832330270720     
   4.1405764999999999        4.3226325000000001      -0.80901711629055573       0.58778508448999744        2.5132743302870857     
  0.40450849999999999      -0.29389250000000000       0.80901711629055573      -0.58778508448999756      -0.62831832330270765     
  0.40450849999999999       0.29389250000000000      -0.80901711629055573      -0.58778508448999756       -2.5132743302870857     
   1.8090169999999999      -0.95105700000000004       -1.0000000000000000        0.0000000000000000        3.1415926535897931     
  0.90450850000000005       -1.2449495000000002       0.80901711629055573       0.58778508448999744       0.62831832330270754     
   1.4635255000000000      -0.47552850000000002      -0.30901685730562767      -0.95105656083166445       -1.8849554480306674     
   1.4635255000000000       -1.4265850000000000       0.30901715119826628      -0.95105646534015420       -1.2566368965421173     
   1.8090169999999999       0.95105700000000004       -1.0000000000000000        0.0000000000000000        3.1415926535897931     
  0.90450850000000005        1.2449495000000002       0.80901711629055573      -0.58778508448999744      -0.62831832330270754     
   1.4635255000000000       0.47552850000000002      -0.30901685730562767       0.95105656083166445        1.8849554480306674     
   1.4635255000000000        1.4265850000000000       0.30901715119826628       0.95105646534015420        1.2566368965421173     
   2.4635255000000003      -0.47552850000000002      -0.30901685730562800      -0.95105656083166423       -1.8849554480306678     
   2.4635255000000003       -1.4265850000000000      -0.30901715119826667       0.95105646534015409        1.8849557570476765     
   2.4635255000000003       0.47552850000000002      -0.30901685730562800       0.95105656083166423        1.8849554480306678     
   2.4635255000000003        1.4265850000000000      -0.30901715119826667      -0.95105646534015409       -1.8849557570476765     
  0.65450849999999994       -1.0633135000000000      -0.30901685730562778      -0.95105656083166445       -1.8849554480306676     
  0.65450849999999994       -2.0143700000000000       0.30901715119826628      -0.95105646534015409       -1.2566368965421173     
  0.65450849999999994        1.0633135000000000      -0.30901685730562778       0.95105656083166445        1.8849554480306676     
  0.65450849999999994        2.0143700000000000      -0.30901715119826628      -0.95105646534015409       -1.8849557570476760     
 -0.80901700000000010       -5.9308529999999999        1.0000000000000000       -0.0000000000000000       -0.0000000000000000     
 -0.80901700000000010        5.9308529999999999       -1.0000000000000000        0.0000000000000000        3.1415926535897931     
 -0.15450849999999999       -5.4553250000000002       0.30901715119826623       0.95105646534015409        1.2566368965421173     
 -0.15450849999999999        5.4553250000000002      -0.30901715119826623       0.95105646534015409        1.8849557570476760     
   1.2135255000000000      -0.29389250000000000       0.80901711629055573       0.58778508448999756       0.62831832330270765     
   1.2135255000000000       0.29389250000000000       0.80901711629055573      -0.58778508448999756      -0.62831832330270765     
   2.1180340000000002        0.0000000000000000        1.0000000000000000       -0.0000000000000000       -0.0000000000000000     
   1.2135255000000000       -2.1960055000000001       0.80901711629055562       0.58778508448999767       0.62831832330270776     
   2.1180340000000002       -1.9021129999999999       -1.0000000000000000        0.0000000000000000        3.1415926535897931     
   1.2135255000000000        2.1960055000000001       0.80901711629055562      -0.58778508448999767      -0.62831832330270776     
   2.1180340000000002        1.9021129999999999       -1.0000000000000000        0.0000000000000000        3.1415926535897931     
   1.8090169999999999       -4.0287400000000000       -1.0000000000000000        0.0000000000000000        3.1415926535897931     
  0.90450850000000005       -4.3226325000000001      -0.80901711629055562      -0.58778508448999756       -2.5132743302870857     
  0.90450850000000005       -3.7348474999999999       0.80901711629055584      -0.58778508448999733      -0.62831832330270743     
   1.4635255000000000       -4.5042685000000002      -0.30901685730562778       0.95105656083166445        1.8849554480306676     
   1.4635255000000000       -3.5532120000000003       0.30901715119826628       0.95105646534015420        1.2566368965421173     
   1.8090169999999999        4.0287400000000000        1.0000000000000000       -0.0000000000000000       -0.0000000000000000     
  0.90450850000000005        3.7348474999999999      -0.80901711629055584      -0.58778508448999733       -2.5132743302870857     
  0.90450850000000005        4.3226325000000001       0.80901711629055562      -0.58778508448999756      -0.62831832330270765     
   1.4635255000000000        3.5532120000000003      -0.30901715119826628       0.95105646534015420        1.8849557570476760     
   1.4635255000000000        4.5042685000000002      -0.30901685730562778      -0.95105656083166445       -1.8849554480306676     
   2.4635255000000003       -4.5042685000000002      -0.30901685730562817       0.95105656083166423        1.8849554480306681     
   2.4635255000000003       -3.5532120000000003      -0.30901715119826667      -0.95105646534015409       -1.8849557570476765     
   2.4635255000000003        4.5042685000000002      -0.30901685730562817      -0.95105656083166423       -1.8849554480306681     
   2.4635255000000003        3.5532120000000003      -0.30901715119826667       0.95105646534015409        1.8849557570476765     
   9.5491500000000007E-002  -4.3226325000000001       0.80901711629055562      -0.58778508448999767      -0.62831832330270776     
  0.65450849999999994       -5.0920535000000005      -0.30901685730562789       0.95105656083166445        1.8849554480306676     
   9.5491500000000007E-002  -3.7348474999999999      -0.80901711629055584      -0.58778508448999733       -2.5132743302870857     
  0.65450849999999994       -2.9654265000000004      -0.30901685730562778      -0.95105656083166445       -1.8849554480306676     
   9.5491500000000007E-002   3.7348474999999999      -0.80901711629055584       0.58778508448999733        2.5132743302870857     
  0.65450849999999994        2.9654265000000004       0.30901685730562778      -0.95105656083166445       -1.2566372055591257     
   9.5491500000000007E-002   4.3226325000000001       0.80901711629055562       0.58778508448999767       0.62831832330270776     
  0.65450849999999994        5.0920535000000005      -0.30901685730562789      -0.95105656083166445       -1.8849554480306676     
 -0.15450849999999999       -4.5042685000000002      -0.30901685730562789       0.95105656083166445        1.8849554480306676     
 -0.15450849999999999        4.5042685000000002      -0.30901685730562789      -0.95105656083166445       -1.8849554480306676     
   2.1180340000000002       -4.9797969999999996       -1.0000000000000000        0.0000000000000000        3.1415926535897931     
   1.2135255000000000       -5.2736894999999997       0.80901711629055562       0.58778508448999767       0.62831832330270776     
   1.2135255000000000       -2.7837909999999999       0.80901664076230817      -0.58778573899820896      -0.62831913231946457     
   2.1180340000000002       -3.0776840000000001       -1.0000000000000000        0.0000000000000000        3.1415926535897931     
   1.2135255000000000        2.7837909999999999       0.80901664076230817       0.58778573899820896       0.62831913231946457     
   2.1180340000000002        3.0776840000000001       -1.0000000000000000        0.0000000000000000        3.1415926535897931     
   2.1180340000000002        4.9797969999999996       -1.0000000000000000        0.0000000000000000        3.1415926535897931     
   1.2135255000000000        5.2736894999999997       0.80901711629055562      -0.58778508448999767      -0.62831832330270776     
   2.2135255000000003       -5.2736894999999997       0.80901711629055562       0.58778508448999756       0.62831832330270765     
   2.7725425000000001       -4.5042685000000002      -0.30901685730562778      -0.95105656083166445       -1.8849554480306676     
   2.2135255000000003        5.2736894999999997       0.80901711629055562      -0.58778508448999756      -0.62831832330270765     
   2.7725425000000001        4.5042685000000002      -0.30901685730562778       0.95105656083166445        1.8849554480306676     
   1.3090169999999999       -5.5675819999999998       -1.0000000000000000        0.0000000000000000        3.1415926535897931     
  0.40450849999999999       -5.2736894999999997       0.80901711629055562      -0.58778508448999767      -0.62831832330270776     
   1.3090169999999999       -2.4898980000000002       -1.0000000000000000        0.0000000000000000        3.1415926535897931     
   1.3090169999999999        2.4898980000000002       -1.0000000000000000        0.0000000000000000        3.1415926535897931     
   1.3090169999999999        5.5675819999999998       -1.0000000000000000        0.0000000000000000        3.1415926535897931     
  0.40450849999999999        5.2736894999999997       0.80901711629055562       0.58778508448999767       0.62831832330270776     
   3.0225425000000001      -0.29389250000000000       0.80901711629055562      -0.58778508448999756      -0.62831832330270765     
   3.5815595000000000       -1.0633135000000000      -0.30901685730562767       0.95105656083166445        1.8849554480306674     
   3.0225425000000001       0.29389250000000000       0.80901711629055562       0.58778508448999756       0.62831832330270765     
   3.5815595000000000        1.0633135000000000      -0.30901685730562767      -0.95105656083166445       -1.8849554480306674     
   2.7725425000000001      -0.47552850000000002      -0.30901685730562767       0.95105656083166445        1.8849554480306674     
   2.7725425000000001       0.47552850000000002      -0.30901685730562767      -0.95105656083166445       -1.8849554480306674     
   3.9270509999999996       -2.4898980000000002       -1.0000000000000000        0.0000000000000000        3.1415926535897931     
   3.0225425000000001       -2.1960055000000001       0.80901711629055550      -0.58778508448999767      -0.62831832330270787     
   3.0225425000000001       -2.7837909999999999      -0.80901664076230806      -0.58778573899820896       -2.5132735212703285     
   3.5815595000000000       -2.9654265000000004      -0.30901685730562767       0.95105656083166445        1.8849554480306674     
   3.5815595000000000       -2.0143700000000000       0.30901715119826623       0.95105646534015420        1.2566368965421173     
   3.9270509999999996        2.4898980000000002       -1.0000000000000000        0.0000000000000000        3.1415926535897931     
   3.0225425000000001        2.1960055000000001      -0.80901711629055550      -0.58778508448999767       -2.5132743302870852     
   3.0225425000000001        2.7837909999999999       0.80901664076230806      -0.58778573899820896      -0.62831913231946468     
   3.5815595000000000        2.0143700000000000       0.30901715119826623      -0.95105646534015420       -1.2566368965421173     
   3.5815595000000000        2.9654265000000004      -0.30901685730562767      -0.95105656083166445       -1.8849554480306674     
   4.5815595000000000       -2.0143700000000000      -0.30901715119826700      -0.95105646534015387       -1.8849557570476767     
   4.5815595000000000        2.0143700000000000      -0.30901715119826700       0.95105646534015387        1.8849557570476767     
   2.2135255000000003       -2.1960055000000001       0.80901711629055562       0.58778508448999756       0.62831832330270765     
   2.7725425000000001       -1.4265850000000000      -0.30901715119826628      -0.95105646534015420       -1.8849557570476760     
   2.2135255000000003        2.1960055000000001       0.80901711629055562      -0.58778508448999756      -0.62831832330270765     
   2.7725425000000001        1.4265850000000000      -0.30901715119826628       0.95105646534015420        1.8849557570476760     
   2.2135255000000003       -2.7837909999999999       0.80901664076230806      -0.58778573899820885      -0.62831913231946457     
   2.7725425000000001       -3.5532120000000003      -0.30901715119826628       0.95105646534015420        1.8849557570476760     
   2.2135255000000003        2.7837909999999999       0.80901664076230806       0.58778573899820885       0.62831913231946457     
   2.7725425000000001        3.5532120000000003      -0.30901715119826628      -0.95105646534015420       -1.8849557570476760     
   3.3315595000000000       -3.7348474999999999       0.80901711629055584       0.58778508448999744       0.62831832330270743     
   4.2360680000000004       -1.5388420000000000       -1.0000000000000000        0.0000000000000000        3.1415926535897931     
   3.3315595000000000       -1.2449495000000002       0.80901711629055562      -0.58778508448999756      -0.62831832330270765     
   4.2360680000000004        1.5388420000000000       -1.0000000000000000        0.0000000000000000        3.1415926535897931     
   3.3315595000000000        1.2449495000000002       0.80901711629055562       0.58778508448999756       0.62831832330270765     
   3.3315595000000000        3.7348474999999999       0.80901711629055584      -0.58778508448999744      -0.62831832330270743     
   3.3315595000000000       -4.3226325000000001      -0.80901711629055550       0.58778508448999767        2.5132743302870852     
   3.3315595000000000        4.3226325000000001      -0.80901711629055550      -0.58778508448999767       -2.5132743302870852     
